# 3D point list with one line of data per point:
#   POINT3D_ID, X, Y, Z, R, G, B, ERROR, TRACK[] as (IMAGE_ID, POINT2D_IDX)
# Number of points: 103, mean track length: 2
1 -2.3051906050585722 -0.93139296704033447 9.1102886319391274 86 81 71 0.084857432768189189 38 91 37 105
2 -3.3570497772244994 -0.28491503536882828 11.826387422536897 38 54 70 0.20141472434932967 38 116 37 144
3 -3.1765180945175211 -0.89555544339310789 11.679228817850893 53 38 35 0.22520209813747749 38 203 37 217
4 -2.1586102566115923 -0.50097844807005332 12.053576099606248 55 51 50 0.75742175709602111 38 207 37 220
5 -3.4108709420699395 -0.039568071645438824 11.883055548987029 37 40 29 0.85533601500969403 38 123 37 235
6 -3.1972158416252854 -0.8054368818365919 11.71141297008227 71 60 56 0.11749755853398353 38 205 37 246
7 -3.0663310373625068 -0.84605595581025517 11.704560802022804 67 56 50 0.089243571429841476 38 236 37 247
8 -3.7596245156620509 -0.30754354256552263 11.922129019808814 145 112 102 2.4083806598840871 38 187 37 259
9 -2.6057260810152552 -0.19557439536666221 11.905090016688362 64 49 44 0.12908357771686141 38 214 37 271
10 -2.547602707362711 -0.16576275403264079 11.931832086313827 56 41 40 0.235670249649859 38 194 37 273
11 -3.323087068835445 0.22471700759978255 11.928741728114105 56 53 22 0.39639652322968777 38 220 37 276
12 -3.6437780461864251 0.35709484380636386 12.057888746262282 69 54 49 0.79972178320825904 38 174 37 279
13 -2.8835202464048741 0.3098028105665242 11.944197164154843 78 80 66 0.62400264796355653 38 224 37 281
14 -3.5636615827559641 0.54677209077413824 12.048275502223508 52 59 72 0.9480923843488146 38 200 37 284
15 -2.6217217653341232 0.63573273981250145 12.090121422888672 59 66 76 0.020106151433284085 38 232 37 287
16 -2.6217217653341232 0.63573273981250145 12.090121422888672 59 66 76 0.020106151433284085 38 231 37 288
17 -3.3373425169575008 -0.44438973472595278 11.800474576524238 43 47 56 0.40983617581490228 38 239 37 294
18 -3.3966307348903997 -0.37267531441542362 11.826359159505675 32 40 52 0.49078443868256444 38 211 37 297
19 -3.3377492070047148 -0.40108698262725789 11.807840477409179 20 35 56 0.21754379446574945 38 240 37 298
20 -3.2308038467902063 -0.23701597505893399 11.818032093339742 46 54 67 0.061654533016229085 38 244 37 303
21 -2.6211176816540624 -0.079634906219937948 11.92515939907914 89 77 72 0.0086956669819806577 38 248 37 304
22 -2.5595597387622044 -0.0960754081214137 11.944091042014268 86 72 70 0.23072689566107821 38 249 37 305
23 -2.5420741137316885 -0.084677761365701251 11.952728566144648 61 43 43 0.23454111680123618 38 250 37 306
24 -2.2237976052667929 0.47881254863884737 12.134315035724349 132 95 84 2.3042221487775874 38 253 37 313
25 -3.5259619752046127 0.61156241528297695 12.052291032295702 86 78 78 0.89832764167856638 38 227 37 314
26 -2.5661477132357136 -0.76293622572342101 11.805779451013386 22 30 15 0.71433458450788012 38 287 37 319
27 -3.2633004493348343 -0.27895734643888409 11.820260851005598 51 59 70 0.13330047656062149 38 265 37 321
28 -2.6596300435992331 -0.18367356413286359 11.897214906898149 58 42 42 0.39559894283345209 38 267 37 325
29 -2.5783776597096093 -0.17413239673087669 11.921416006030332 90 79 73 0.11227939214726135 38 292 37 327
30 -2.5956351252764396 -0.097204547702072555 11.928603872917904 55 37 37 0.19253537654015823 38 268 37 328
31 -2.285453710339465 -0.16436978625088544 12.040790834230943 106 95 83 0.82455914292069743 38 269 37 329
32 -2.4628933198791017 0.046017918346938511 12.005380465008262 53 58 61 0.23012071738226711 38 272 37 332
33 -2.8787404385482227 0.37847652946856281 11.960922781010128 80 82 68 0.33126921361952222 38 279 37 337
34 -2.8490227192882203 0.43285366475957932 11.978938603455678 74 77 60 0.24989043634529262 38 280 37 340
35 -2.5449778969302099 0.42665373367684378 12.058098699784153 105 69 21 0.34319438529253743 38 300 37 341
36 -3.2380696040432091 0.68782243390342512 12.009042589293186 49 55 43 0.58318594505398857 38 255 37 342
37 -2.7049362510698778 0.6285680470246382 12.063818250273172 46 54 65 0.45929253768378192 38 282 37 343
38 -3.2415316602153159 -0.84297074229457547 11.697889816441931 67 53 51 0.064526616860484026 38 286 37 346
39 -3.2415316602153159 -0.84297074229457547 11.697889816441931 67 53 51 0.064526616860484026 38 285 37 347
40 -2.5373721394959126 -0.7458577264283095 11.818594179977117 82 74 66 0.43683161211620292 38 288 37 348
41 -2.8646463624566567 -0.50102027005745886 11.787909669804806 81 53 50 0.06124468777116765 38 314 37 349
42 -3.2171887215221382 -0.26622329863764971 11.81398377885346 25 38 55 0.055069456140167131 38 291 37 354
43 -2.6095592676673154 -0.1465917464784271 11.913322678654826 49 31 34 0.071376280875370873 38 293 37 356
44 -3.4156966431164077 -0.076777669738025162 11.884702853428276 86 79 71 0.67914999808846699 38 266 37 357
45 -2.5821713005807507 -0.051131052858074927 11.945442341615216 59 43 43 0.17676380286150367 38 295 37 361
46 -2.8858813245025727 0.34075830897856879 11.949431993948725 44 52 35 0.5350286475951227 38 299 37 364
47 -3.2744504294230801 0.51010344812629249 11.979393450263647 55 58 63 0.34267000601361125 38 301 37 365
48 -3.2042531941536829 0.67787272041793911 12.010485632572626 28 36 21 0.1271480590684394 38 281 37 368
49 -2.553540447602372 0.67309954597377186 12.123994965540879 40 46 62 0.080382008258707352 38 302 37 369
50 -2.9623817395539391 -0.74719437204413086 11.728156348577356 51 56 62 0.15789527887598953 38 306 37 370
51 -2.6835769673624927 -0.15289595435175338 11.896611359682371 55 39 40 0.52281992380276177 38 317 37 375
52 -2.5357300140456669 -0.12683514747459596 11.947350617560394 52 36 37 0.15027716029280638 38 318 37 376
53 -3.1113479884844017 0.385113244670449 11.945570078749769 63 61 23 0.22946083689440178 38 324 37 377
54 -3.4295552578886905 0.44079091439631191 11.985728455262498 63 64 68 0.13213932978508153 38 298 37 378
55 -2.866625249076316 0.72789675344033944 12.049461002170801 55 36 40 0.42204283064765069 38 328 37 380
56 -2.5860633574503571 0.7177908374218932 12.111041642262951 37 45 56 0.13949023866865323 38 329 37 381
57 -2.7094223292884747 -0.81024004872813615 11.756216450233211 87 78 71 0.324009710667016 38 333 37 390
58 -2.8347881295856538 -0.0097634223734975947 11.88909077212201 50 57 65 0.46749161471061029 38 344 37 395
59 -2.2391990909348256 -0.80262811869182271 11.945428597373315 71 66 62 1.2054589269500102 38 353 37 403
60 -2.2553047810812479 -0.54398354080582167 11.99237486444577 41 44 18 0.17013643230921144 38 368 37 407
61 -2.2546794105058621 -0.44902896586198071 12.02392075495527 69 62 56 0.15062445676570041 38 355 37 408
62 -2.8359033405016478 0.32042802917259117 11.954407204022301 106 96 87 0.48195070923711752 38 359 37 416
63 -2.5322140161592763 0.60925110696826623 12.111675550319157 110 98 86 0.017627998111838621 38 360 37 419
64 -2.7620788165525458 -0.53844469898271086 11.779795842176476 90 83 73 0.45298133554422315 38 367 37 421
65 -2.0259782273412505 -0.31816561613082883 12.191805041192985 49 31 31 0.35447209678222763 38 395 37 422
66 -2.3482941733297169 -0.12921766087066738 12.025647007041455 76 48 47 0.04023808113689234 38 371 37 423
67 -3.3705543838943224 -0.030299730099039617 11.879805093568597 33 44 28 0.3024664285560309 38 373 37 424
68 -3.3705543838943224 -0.030299730099039617 11.879805093568597 33 44 28 0.3024664285560309 38 374 37 425
69 -2.9171207942431128 0.28067739938214281 11.923146821207782 44 53 34 1.239298706160334 38 379 37 429
70 -3.4839036867414901 0.52356517553305004 12.034846710672399 93 84 77 0.76501367551050126 38 382 37 433
71 -2.1732185548463705 0.45910049272189762 12.171883618799596 70 32 31 2.342398691041383 38 414 37 435
72 -3.1733280274783486 -0.87498865574876561 11.699320040117591 66 50 50 0.67752025865005927 38 386 37 441
73 -2.8526696211290008 -0.45290555946949645 11.799759153069962 79 52 49 0.23995024422972691 38 390 37 444
74 -2.5552822523465126 -0.23861285412066879 11.934725364075963 91 83 72 0.46038782054828936 38 396 37 449
75 -2.5552822523465126 -0.23861285412066879 11.934725364075963 91 83 72 0.46038782054828936 38 397 37 450
76 -2.505278598691282 0.086308225865611377 12.008977265677672 58 59 64 0.31376573569083527 38 402 37 453
77 -2.4643743559127036 -0.070046384938568268 11.977739432023297 94 85 76 0.32278807718253566 38 400 37 454
78 -2.4526085565994475 0.21459567974202173 12.068727656956918 111 98 89 1.5606777694930869 38 403 37 456
79 -2.5621097196233569 0.33330497141099535 12.030936476530156 103 60 18 0.035103498655300949 38 406 37 461
80 -3.3577325195913907 0.47559862688645604 11.990803131066553 57 60 65 0.14385112338111061 38 408 37 462
81 -3.2672685015261802 0.68512915815359743 12.015867140440751 32 40 27 0.25529308651113441 38 416 37 464
82 -3.0503046381882459 0.57757911054417765 11.985955155626575 83 55 52 0.45397696506174279 38 410 37 465
83 -2.6616443257859164 0.59504858267030092 12.063984466333432 52 61 76 0.47372736429181955 38 417 37 466
84 -2.3433398013385762 -0.4411257579296376 11.980753940456893 81 74 66 1.2510084057682764 38 423 37 468
85 -2.4770718852543561 -0.34850608725782933 11.926694871531346 47 48 14 0.083616309677327166 38 427 37 470
86 -2.603966303214897 -0.12390725921952533 11.933455424260238 51 35 38 0.37198362532730955 38 429 37 471
87 -2.7075471708682763 -0.036805471720805311 11.908856942438874 95 87 76 0.90215356568370431 38 399 37 473
88 -2.368133636923996 0.028008456200441536 12.063583913336643 92 83 74 1.0324202115827463 38 435 37 474
89 -3.269258643831392 0.36516380938353082 11.930433571056625 96 87 78 0.4670528323006749 38 404 37 478
90 -3.0169611837616572 0.42988438491269559 11.933490998802908 100 91 82 1.0765110355017105 38 437 37 480
91 -2.879177006983801 0.4115594317678451 11.994001687237466 46 53 37 1.3644978635730969 38 438 37 481
92 -2.5536998499762142 0.51915457907552587 12.077340680278603 115 103 90 1.2782353589541553 38 441 37 482
93 -2.4878265913030915 0.76309276745125298 12.147382448700389 85 74 68 1.693383279937652 38 442 37 483
94 -2.9176130712160999 -0.5872774419755673 11.816733726102544 94 84 75 0.42454314909341984 38 421 37 486
95 -3.3081342732501966 -0.31926788716438947 11.803176214978109 17 34 56 0.4980967676388956 38 425 37 489
96 -3.3081342732501966 -0.31926788716438947 11.803176214978109 17 34 56 0.4980967676388956 38 426 37 490
97 -2.6902919836397734 0.44450332547307642 12.012484568300831 111 101 89 1.0936668187968106 38 440 37 495
98 -2.6902919836397734 0.44450332547307642 12.012484568300831 111 101 89 1.0936668187968106 38 439 37 496
99 -2.8428502350257512 0.58337229588239325 12.018280912700645 102 92 83 1.9305182291240732 38 445 37 497
100 -3.0739091128985097 0.77233865024684967 12.039676697004232 83 74 69 1.9100582809537374 38 452 37 499
101 -2.1107413955501366 -1.1040549259490426 12.242500598806226 217 199 151 1.2991135296732699 38 449 37 501
102 -2.6726067013878563 -0.72726470132729015 11.778704272195963 21 32 16 0.78483333568333258 38 453 37 502
103 -1.7446674118929195 -0.76586797156040642 12.476337081100295 0 0 0 0.88476109709347361 38 456 37 504
